0.680593 0.703409 0.20496
-0.774346 0.625934 0.0927044
0.403193 0.908512 0.109732
0.232116 0.270961 -0.934186
0.236885 -0.878075 -0.415776
-0.947993 -0.314077 0.0516324
0.729607 0.536586 0.423967
-0.0280737 -0.981329 -0.190277
-0.842281 -0.279763 0.460754
0.769692 0.638295 -0.0123833
-0.631334 0.238342 -0.737978
-0.690792 -0.625432 0.362824
-0.6264 0.638935 0.446525
-0.405047 0.598254 -0.691397
0.844964 -0.47161 0.252229
-0.589508 -0.621283 -0.516224
0.66743 0.73462 0.121949
0.646193 -0.34745 0.679495
-0.34888 0.929422 0.120241
-0.0781246 0.105615 0.991333
-0.615602 0.708972 -0.344082
-0.856533 -0.100188 0.506275
-0.50974 -0.745753 -0.428974
-0.0884186 0.158063 -0.983462
-0.792733 0.44044 -0.42141
-0.9371 0.271597 0.219268
0.65433 0.140919 -0.742963
-0.825245 -0.465445 -0.319894
0.322687 -0.427414 -0.844506
0.0632319 -0.114103 -0.991455
0.939257 0.16588 -0.300468
-0.398108 -0.0417727 -0.916387
0.127513 -0.669801 0.731511
0.862864 -0.485846 -0.139352
0.249216 -0.157109 0.955619
0.448411 -0.532322 0.718026
-0.749577 -0.661887 0.00626381
0.741747 0.444512 0.502215
0.30259 0.293204 0.906902
-0.977615 0.0680096 0.199109
0.200782 -0.0960867 0.974912
0.868812 -0.144678 0.473533
-0.76047 -0.403772 0.508579
-0.800889 0.198275 -0.565035
0.873919 -0.0228664 -0.485534
-0.667722 -0.229337 -0.708203
0.792156 0.162622 0.588254
-0.811159 0.255701 0.525964
-0.0020676 -0.901802 0.432144
0.774396 -0.137113 0.617666
-0.854608 -0.0828672 0.512619
0.845273 0.412805 -0.339272
0.984745 0.0713237 0.158712
-0.921557 0.0328242 0.386853
-0.984918 -0.0993557 -0.141652
-0.848189 0.165691 0.503111
0.228773 0.715849 0.659715
-0.73225 -0.377503 0.566834
-0.127763 -0.838295 -0.530036
-0.681368 0.73192 0.00548834
0.222256 -0.274124 -0.93566
0.821285 -0.558724 -0.115401
0.0264982 0.32266 -0.946144
-0.262856 0.478931 -0.837575
0.90656 -0.139533 -0.398345
0.25068 0.822881 0.509927
0.813499 0.57865 0.0581732
-0.692801 -0.308591 -0.651766
-0.789881 -0.44736 -0.419472
0.113453 0.632418 -0.766274
0.395797 0.906203 0.148798
-0.0289929 0.79193 0.609923
-0.798721 -0.378088 0.468076
-0.330421 0.586703 -0.739325
-0.861574 -0.379888 0.336712
-0.730977 0.0374728 -0.681373
-0.297027 0.726399 0.619774
-0.198525 0.381038 -0.902994
-0.776083 -0.518749 -0.358599
0.308811 0.727906 0.612199
-0.812199 0.418594 -0.406338
0.475574 -0.648912 -0.593922
0.0476736 -0.997613 -0.049961
0.911978 -0.398799 0.0962078
-0.730456 0.489652 -0.476104
-0.550869 -0.431774 0.714223
-0.203405 0.749749 0.629685
-0.228344 0.74568 -0.625955
-0.107335 0.992613 -0.0565543
0.280352 0.0413141 -0.959008
0.550873 0.80567 0.217798
0.620464 -0.749064 -0.232224
0.719136 -0.343278 0.604156
-0.118331 0.660445 0.741492
-0.521881 0.155529 0.83872
-0.959445 -0.148835 0.239404
0.66085 -0.161146 0.733014
-0.871872 0.336313 -0.355996
0.54615 -0.713794 -0.438427
0.0669047 -0.901482 0.427613
-0.936221 -0.219579 0.274364
0.672441 0.300451 0.676426
-0.391268 0.855304 0.339654
0.0996028 -0.750292 -0.653561
0.925966 0.327318 -0.188279
-0.627956 0.744881 0.225441
0.390766 -0.163414 0.905869
-0.648486 -0.434104 -0.625316
-0.443222 -0.0428398 0.895388
0.294579 -0.943645 0.150852
0.120473 0.736763 -0.665332
-0.852253 -0.444375 0.276036
0.810803 0.139028 -0.568569
-0.790158 0.597923 0.134681
0.209337 0.804514 -0.555819
-0.0233097 0.384572 -0.922801
0.763977 -0.0958751 0.638081
-0.423434 0.809717 0.406277
0.932629 -0.328837 -0.148556
0.967352 0.167659 -0.190052
-0.0216283 0.950849 -0.3089
-0.751303 -0.38614 0.535201
0.521433 0.472615 0.710452
-0.267285 0.702318 0.659778
-0.903788 0.424679 -0.0530491
0.807259 0.388227 0.444536
0.97332 -0.159679 0.164776
-0.402595 0.868641 -0.288755
0.817183 -0.48089 -0.317735
0.341732 -0.527134 0.778042
-0.054803 -0.400931 -0.914467
0.833042 -0.530793 -0.155884
0.150545 -0.496886 0.854658
-0.0993642 -0.817601 -0.567147
0.652752 0.577418 0.490412
0.708149 -0.475882 -0.521595
-0.837691 0.489148 -0.242915
0.697873 0.637341 0.326756
-0.299478 -0.239139 0.923648
0.422656 -0.169488 -0.890301
0.611139 0.777064 -0.150601
0.369238 0.567183 0.736184
-0.643575 -0.348277 0.681553
0.221496 -0.899454 0.376724
-0.303714 0.895846 -0.324372
0.588775 -0.699807 -0.404493
0.942552 -0.322422 -0.0874024
-0.0734285 0.669094 0.739541
-0.38587 -0.360243 0.849311
-0.430727 0.414753 0.801533
0.64306 0.271885 0.715927
0.0431417 -0.613421 -0.788577
0.0700634 0.824912 0.560903
-0.0984208 -0.817988 0.566753
-0.777713 -0.249586 0.576948
-0.0684317 0.245586 0.966956
-0.235279 0.0637226 -0.969837
0.779978 0.228217 0.58271
-0.250452 0.513175 0.82093
-0.717915 -0.664104 0.208719
-0.71959 0.434531 -0.541639
-0.599238 -0.24366 0.76259
0.438056 -0.230107 -0.868998
0.768224 -0.450676 0.454669
-0.98504 0.0475532 -0.165636
0.82207 -0.482266 -0.302689
0.312471 -0.561419 -0.766271
-0.697912 -0.277398 -0.66028
-0.169239 0.930516 0.324805
-0.43403 -0.0378305 0.900104
-0.237726 -0.962696 0.129237
-0.770536 -0.249496 0.586538
-0.069567 -0.306485 0.94933
-0.608721 0.793384 0.000224248
-0.353679 0.801005 0.483013
-0.630144 -0.414298 0.656716
0.932858 -0.32977 -0.145009
-0.776041 -0.213406 0.593479
0.864585 -0.00965689 -0.502394
-0.386528 0.820575 0.421014
-0.544996 -0.80819 -0.223177
0.831954 -0.154663 0.532852
-0.400624 -0.475968 -0.782914
-0.879158 -0.205985 0.429711
-0.652895 -0.599924 -0.462407
0.0323626 -0.0070255 0.999452
0.14086 0.0433904 -0.989078
0.320976 -0.911566 -0.256946
0.475182 0.857861 -0.195644
-0.597262 -0.802039 -0.00351393
-0.842078 -0.295933 0.45092
0.404119 0.817637 0.410071
-0.443973 -0.0906385 -0.891444
-0.67367 0.300611 0.67513
0.556198 0.348184 0.754593
-0.206363 -0.624863 0.752968
-0.903912 0.368609 -0.216955
0.696831 -0.717124 0.0126483
0.718558 0.277169 -0.637849
-0.66719 -0.428401 0.609369
0.435433 0.364496 -0.823129
0.0869207 -0.409288 0.908255
0.651521 -0.300397 -0.696622
0.0825963 -0.159657 -0.983711
0.150897 -0.263412 -0.952809
-0.168635 0.878045 -0.447883
-0.485349 0.745576 -0.456676
-0.352938 0.924482 0.144112
-0.657135 -0.509803 0.555225
-0.459229 -0.720057 0.520217
0.811347 0.495267 -0.310525
0.85389 -0.381152 0.354393
-0.48941 0.297952 0.819574
0.452184 0.80471 -0.38467
-0.405947 0.771077 -0.490559
0.825096 -0.239657 -0.511646
0.316302 -0.770493 -0.553438
-0.702551 0.641227 -0.308626
0.37816 0.0813474 -0.922159
-0.208708 0.620189 0.756179
-0.354657 -0.778092 0.518452
-0.373376 -0.810999 0.450413
-0.614081 -0.0720041 -0.785951
0.548156 -0.831335 -0.0916922
-0.704726 0.6791 -0.205388
-0.320772 -0.858812 0.399434
0.358092 0.931067 -0.069891
-0.953262 0.301765 -0.0151655
-0.342085 -0.914483 0.216101
0.63544 -0.371165 -0.677091
-0.767394 0.62841 0.127309
-0.172371 -0.0141224 0.984931
0.808666 0.143999 -0.570371
0.726309 -0.176577 -0.664301
0.175589 0.98434 0.0155781
0.2511 0.965414 0.0701711
-0.171837 0.89768 -0.405762
-0.970214 0.131245 0.203614
-0.47889 -0.749335 0.457342
-0.313658 -0.186329 -0.931075
-0.85244 0.516295 -0.0823724
-0.818522 -0.491705 -0.297066
0.145443 0.761724 -0.631365
-0.178593 0.29084 0.939956
-0.69673 -0.363066 0.618668
0.755916 0.635985 -0.155287
-0.555846 0.133495 0.820496
-0.316097 -0.422241 0.849586
0.465128 0.205967 0.860949
0.37525 -0.836582 -0.399147
-0.44905 -0.483121 0.751631
-0.350705 -0.776327 0.523758
-0.302031 0.0697911 0.95074
-0.243818 -0.924609 0.292663
-0.97808 -0.153917 -0.140249
-0.361495 -0.285552 -0.88757
-0.15606 -0.123575 0.979987
0.324608 0.850057 -0.414768
-0.644946 -0.534649 0.546072
-0.156443 -0.942998 0.293736
-0.827956 0.0978882 -0.552183
0.43571 0.769451 -0.467014
-0.710637 0.460636 0.531799
0.940137 0.325466 -0.101062
-0.742073 0.231882 0.628934
-0.64859 -0.19896 -0.734674
-0.349936 -0.929272 0.118316
0.815976 0.405694 -0.41182
0.626919 0.571599 -0.529384
0.445008 -0.159635 0.881183
0.67325 -0.41331 -0.613114
0.127805 0.794466 -0.593708
0.734597 -0.675184 0.0670324
0.0161894 -0.998676 -0.0488233
0.105164 -0.140824 -0.984433
0.222985 0.382335 0.896715
-0.746173 0.473012 -0.468493
-0.637692 -0.00880424 0.770241
-0.746989 0.581787 -0.321762
-0.606121 0.778853 -0.161259
0.948206 -0.22433 0.224903
-0.434088 -0.218036 -0.874087
-0.35369 0.653796 -0.66892
-0.582273 -0.739007 0.338861
-0.45372 0.592174 0.665933
0.577139 0.741219 -0.342791
0.00131474 -0.380189 -0.924908
-0.436007 -0.852783 -0.287504
0.932756 0.334554 0.134314
0.49909 0.635538 -0.589067
0.350981 -0.806485 -0.475808
-0.240758 0.677374 0.695126
-0.534405 0.0786101 -0.841565
-0.266664 -0.658465 -0.703785
-0.242673 -0.907904 -0.341791
0.93482 -0.0695724 0.348241
-0.142646 -0.776387 0.613902
-0.920235 0.0423211 -0.389071
-0.754267 0.653522 0.0631772
0.630349 0.688391 0.358858
0.306556 -0.277811 0.910409
-0.995632 -0.0924547 0.0130335
0.61825 0.135196 0.774267
0.309538 -0.944185 -0.1127
-0.635659 0.0296207 0.771401
0.531466 -0.738349 -0.415192
-0.649664 -0.710845 0.269512
0.438357 0.616185 0.654339
0.055527 -0.0327813 -0.997919
0.0860673 -0.0233489 0.996016
-0.714005 0.455225 0.531947
-0.949983 0.2574 -0.176856
-0.604285 -0.105268 0.789783
-0.177847 0.796887 -0.577358
-0.2746 0.465822 -0.841192
-0.163911 -0.842706 -0.512815
-0.781137 0.0478328 0.622525
0.484847 0.699692 0.524742
0.269995 0.896583 0.351057
-0.476294 0.872103 -0.112157
-0.199244 -0.389494 -0.89922
-0.413428 0.885832 0.210662
-0.250316 0.200728 0.947127
-0.721897 0.584275 0.370793
0.917998 -0.357994 -0.170645
0.455291 -0.349074 0.819059
0.174485 -0.984609 0.0100435
0.237599 -0.112281 -0.964852
0.751646 0.232303 0.617304
-0.250303 -0.685536 -0.683658
0.97193 0.231225 -0.0434493
-0.511378 -0.831684 0.21632
-0.170449 0.813016 0.556734
0.0466938 0.937607 0.344546
0.955105 0.296265 0.000809663
0.242565 0.0059066 -0.970117
0.133891 0.610007 0.781002
0.43669 -0.391926 0.809751
-0.634385 0.0617535 0.770547
-0.237751 -0.448336 -0.861666
0.58814 -0.371168 0.718558
-0.22812 -0.0950025 0.968987
0.612257 0.312743 0.726177
-0.585995 0.480677 0.65235
0.0574173 0.914377 0.400771
-0.7114 0.576291 0.402243
-0.454855 -0.887294 0.0762651
-0.723256 -0.569859 0.390078
-0.213573 0.361991 0.907386
0.319279 -0.944304 -0.0796947
-0.482887 0.244991 0.840714
0.0157295 0.632541 0.774367
-0.94054 0.170916 0.293552
-0.0951998 0.984849 0.144947
0.0701837 0.18259 -0.980681
0.059831 -0.555425 0.829411
-0.223934 -0.691294 -0.686998
0.803112 0.58868 -0.092021
0.0628766 0.510489 0.857582
-0.547698 -0.478623 -0.686256
0.418341 0.692175 -0.588119
-0.783819 -0.178167 0.594882
-0.978305 -0.0387667 0.203509
0.0612546 0.971465 0.229138
-0.511907 0.855916 -0.0732039
0.180473 0.408751 0.894624
-0.33653 -0.212903 -0.917289
0.164435 -0.869171 -0.466372
-0.671878 0.651376 -0.352548
0.959251 -0.19063 0.20856
-0.99246 -0.0257687 -0.119831
-0.643324 -0.752196 0.142602
0.540907 -0.725178 -0.426071
-0.069523 0.307778 0.948915
0.166378 -0.547833 0.819876
-0.153833 -0.79097 -0.5922
-0.223825 0.932979 0.281874
-0.437211 0.7522 -0.492992
0.86701 0.442529 0.229044
-0.0967237 -0.710905 -0.696605
-0.714519 -0.697228 0.057762
-0.74232 0.541116 -0.395164
0.461443 0.203313 -0.863559
-0.970335 -0.188007 0.151998
0.51846 0.336137 0.786264
0.20286 -0.0642004 -0.977101
-0.0426678 0.167535 0.984942
-0.77764 -0.0160876 0.628505
0.34949 0.288834 0.891309
-0.0257656 0.985484 0.167801
-0.424165 0.0229048 0.905295
-0.635159 -0.366425 -0.679931
0.983158 -0.175503 -0.0509732
-0.693709 -0.471726 -0.544281
-0.489793 -0.603466 0.629231
-0.947805 0.300681 -0.106099
-0.68549 0.727447 0.030407
0.702738 0.48623 -0.519365
-0.67938 -0.0492685 -0.73213
0.732985 0.526257 -0.431029
-0.948333 0.162908 0.272261
0.479687 -0.774958 -0.41151
0.455332 0.810212 -0.369092
0.755741 0.564927 0.331228
0.723762 0.105887 -0.681878
0.08493 -0.533975 -0.841224
0.228822 0.327129 0.916857
0.031052 -0.168474 0.985217
-0.361532 -0.504035 -0.784374
0.12079 -0.899379 -0.420152
-0.372767 -0.504102 -0.779055
0.968966 0.244064 0.0392144
-0.871373 -0.415903 -0.260256
-0.553187 -0.315581 0.770969
-0.457713 0.62662 0.630751
-0.061953 -0.131078 -0.989434
-0.526995 -0.6832 0.505483
0.692961 0.604134 -0.393482
0.656627 -0.290171 0.696162
0.105664 0.720975 -0.684858
-0.576657 0.145651 -0.803898
0.853662 -0.220516 -0.47184
-0.089647 0.952297 0.291709
-0.17471 0.903547 -0.391252
0.697981 -0.596403 0.396392
-0.0768616 0.958207 -0.275556
0.314076 0.692598 0.649357
-0.473944 0.878628 0.0582149
0.673619 0.587079 -0.448972
0.981153 0.102301 0.163932
-0.979047 -0.0471912 0.198088
-0.280135 0.583766 -0.762064
0.971657 -0.144776 -0.186875
-0.0700628 0.858477 -0.508044
-0.0859907 0.796383 -0.598648
-0.2855 0.411732 -0.865429
0.955729 0.286546 -0.0668794
-0.9891 0.0832202 0.121474
-0.139254 0.867509 0.477531
-0.548454 0.764533 0.338656
-0.419395 0.203298 -0.884747
0.974886 0.0657727 -0.212771
0.259693 0.0215589 -0.965451
0.702276 -0.580563 0.412015
-0.650432 0.53353 0.540633
-0.188396 -0.572989 -0.797616
0.637899 0.73116 -0.241845
-0.848903 -0.260765 0.459746
0.782531 -0.518459 0.344741
0.923436 0.37237 0.0927729
-0.835361 0.526578 -0.157756
0.786104 -0.301312 -0.539678
0.184801 0.849283 0.494537
0.138688 -0.985249 0.100251
-0.834552 -0.165051 -0.525625
0.0414451 -0.69761 -0.715278
-0.0906597 0.415947 -0.904859
0.156307 0.986294 -0.0528437
0.000950825 0.480617 0.87693
-0.92081 0.103398 -0.376056
-0.613276 0.484631 0.623719
-0.132926 0.769911 0.624154
-0.615886 -0.70035 0.360826
-0.213332 0.392074 0.894856
0.547957 0.384549 -0.742876
-0.951755 0.302613 0.0508747
0.441635 0.0992705 0.891686
-0.242467 0.862195 -0.44478
-0.90332 -0.281251 0.323899
-0.0972327 -0.549759 0.829645
-0.354183 -0.445633 0.822171
0.71343 -0.590406 -0.377409
-0.775198 -0.618836 0.126926
0.155552 0.13097 0.979107
0.265751 0.81228 -0.519209
0.0348176 0.889461 -0.455683
-0.564981 0.513458 0.645877
0.168636 -0.817674 0.550428
-0.394501 0.746749 0.535476
-0.187307 0.282462 0.940814
-0.702399 -0.509419 0.497121
0.176802 0.554074 0.813476
-0.363364 -0.926222 0.100402
0.542386 0.539576 -0.643953
0.929797 -0.364873 -0.0484306
0.143535 -0.97572 -0.165433
-0.185376 0.448809 -0.874189
-0.598293 -0.797235 -0.0803902
-0.0467711 0.696502 -0.716029
-0.0413651 -0.902124 -0.429489
-0.0535206 -0.339773 -0.938984
0.367634 -0.131946 -0.920562
0.492779 0.860722 -0.127773
0.877803 0.348273 -0.328889
0.672915 0.624236 0.39688
0.113043 -0.980622 0.160002
-0.744887 0.662536 0.0786743
-0.826044 -0.360669 -0.433092
-0.1533 0.10515 -0.982569
-0.846404 0.148247 -0.511491
0.735457 -0.474539 -0.483648
-0.430695 0.870427 0.23845
-0.610221 -0.637666 -0.47012
0.891928 0.292433 -0.344888
-0.367044 -0.0255724 0.929852
-0.922301 0.267066 -0.279352
0.700368 0.361516 -0.615459
0.697989 0.262467 0.666275
0.760326 -0.413587 0.500849
-0.210973 -0.718479 0.66278
0.483191 0.48856 0.726523
0.607556 -0.698734 0.377685
0.158657 -0.976115 -0.148417
0.207305 -0.78488 0.583942
0.792683 0.285166 0.538826
-0.0171957 -0.98204 -0.187889
-0.959233 -0.0509853 -0.277979
0.592102 0.309244 0.744166
0.588591 -0.337572 -0.734578
0.296921 0.0908101 -0.950574
0.658414 -0.495473 0.566567
-0.158532 0.222374 -0.961986
-0.635802 0.766936 0.086977
0.36253 -0.92848 -0.0805999
0.221876 0.199159 0.954519
0.254535 0.0095813 -0.967016
-0.87173 0.265311 -0.411943
-0.255329 0.717986 -0.647536
0.847189 0.504547 0.16644
-0.0816559 -0.960614 0.265619
0.312118 0.828399 0.465121
-0.611225 0.755289 -0.236522
0.481432 -0.757911 0.440221
0.135258 -0.618943 -0.773702
-0.984928 -0.1708 -0.0272622
-0.0818454 0.784463 -0.614751
0.192483 0.695905 -0.691857
0.992039 -0.0957173 -0.0818364
-0.0803565 0.705817 0.703822
0.370022 -0.795828 0.479314
-0.0883316 0.58987 -0.802652
0.564401 0.527912 0.634634
-0.732277 0.402588 0.549267
-0.129839 -0.990176 -0.0519012
0.964176 -0.0691216 0.256101
-0.133237 0.040961 -0.990237
0.920576 -0.254217 -0.296503
-0.0560847 0.96352 0.261693
0.0307267 -0.0847453 -0.995929
-0.64387 0.653443 0.39805
-0.285759 -0.904758 0.315841
0.24287 0.503201 -0.829339
0.0219126 -0.880135 -0.474218
-0.285471 -0.710234 0.643486
-0.119777 0.206425 0.971104
-0.982872 -0.00599515 0.18419
0.290074 -0.44298 -0.848308
-0.515363 -0.167169 -0.840509
-0.836054 -0.515536 -0.187715
0.0387541 -0.075191 0.996416
-0.337497 -0.630649 -0.698841
0.958635 0.267208 -0.0980768
-0.385129 -0.479191 0.788703
-0.152972 0.778903 0.608202
-0.484095 0.528341 0.697501
-0.495169 -0.86809 -0.0350311
-0.486207 -0.650805 0.583142
-0.148976 -0.2722 -0.950639
-0.456347 0.496986 0.738074
0.140234 0.263599 0.954384
-0.2119 0.0677763 0.974938
-0.810451 -0.240151 -0.534319
-0.38053 0.905548 -0.187562
-0.23547 0.588114 -0.773742
-0.122543 -0.583949 -0.802488
0.951484 0.133768 0.2771
0.288428 0.244737 0.925696
-0.0607505 -0.973044 -0.222472
-0.366894 0.655092 -0.660488
-0.488349 0.465191 -0.738317
-0.972308 0.212011 0.0983307
0.261025 0.965329 0.00221797
-0.726432 -0.0342545 0.686384
0.483168 -0.671265 -0.562096
0.759884 0.566183 -0.319393
0.0742519 -0.544138 -0.835703
-0.0446565 -0.416613 0.907986
-0.675418 0.702399 0.224602
-0.663246 -0.509175 -0.548494
0.764414 -0.374995 0.524452
-0.795348 0.0684481 -0.602276
-0.233841 -0.790239 0.566427
0.458668 -0.419418 0.783398
-0.70655 -0.706332 0.0433771
0.0556945 -0.924178 -0.37788
-0.574248 0.0418587 -0.817611
0.693068 -0.314718 -0.648544
0.211997 0.0136937 -0.977174
0.506397 -0.053166 0.86066
0.962659 0.0661268 -0.262515
-0.367432 0.178533 -0.912754
0.35128 0.92148 -0.165762
-0.132883 -0.970397 0.201671
-0.668515 0.601771 0.43699
-0.0829886 0.933767 0.348126
-0.391495 -0.745383 -0.53957
-0.637633 -0.22512 -0.736712
-0.0609668 -0.804471 0.590855
-0.0304731 -0.346568 0.93753
-0.49437 0.0593171 -0.867225
0.0516804 -0.0644497 -0.996582
-0.479637 0.224159 -0.848352
-0.0462109 0.996959 -0.0627473
0.212316 -0.483228 -0.84936
-0.497167 0.786777 -0.365796
-0.596328 -0.351101 -0.721887
-0.127271 -0.609554 -0.782462
0.537134 -0.405453 0.739658
0.989503 -0.142021 -0.0267159
-0.677423 0.721149 0.145059
-0.846187 0.174931 -0.503355
-0.027997 -0.162405 0.986327
-0.926519 -0.318239 -0.200714
-0.664677 -0.286281 0.690107
0.503231 0.0592366 -0.862119
-0.137736 -0.972077 -0.189989
-0.0278963 -0.235644 0.971439
-0.860437 0.401564 0.313677
-0.462384 0.0745023 0.883544
-0.735766 0.247904 -0.630232
0.1311 0.0127096 -0.991288
0.231307 0.834987 -0.499293
-0.232302 -0.716813 -0.65743
-0.884209 0.21421 -0.415076
0.3197 0.375869 -0.869779
0.868121 0.458408 0.190335
-0.949027 0.30038 0.0954918
0.998174 0.0252598 0.0548671
0.539945 0.282045 0.793038
-0.951906 -0.110471 -0.285782
0.742287 0.665223 0.0805432
-0.82673 0.149507 -0.54237
0.870516 -0.252232 0.42259
0.928359 -0.281551 -0.242651
-0.821226 -0.0196687 -0.570264
-0.838455 0.540866 0.0667639
-0.390894 0.917927 0.0679134
0.713012 -0.123731 0.690148
0.657633 0.0526452 -0.751497
0.136156 -0.612547 -0.778619
0.139015 0.141681 0.980103
-0.932099 -0.051696 0.358496
0.174573 -0.0881699 -0.980689
-0.525304 0.722584 0.449364
-0.453521 0.83601 -0.308878
-0.679481 0.260339 -0.685952
-0.312509 0.0288653 0.949476
-0.557297 -0.527836 0.640944
-0.173573 -0.98475 0.0118459
-0.648676 0.68327 0.335205
-0.966822 0.11002 0.230545
0.585522 0.505782 -0.633521
-0.657452 -0.35496 -0.664651
-0.74135 -0.616597 -0.264969
0.793176 0.332592 -0.510152
-0.841539 0.353016 0.408891
0.846062 0.442163 0.297776
0.143495 -0.133454 -0.980612
-0.405035 0.858213 -0.315303
-0.00817858 -0.326557 -0.945142
0.389042 -0.909568 -0.146056
0.641017 0.757182 0.125589
-0.444692 0.705037 0.552423
0.902772 -0.0645014 -0.425256
0.931032 -0.310537 0.191692
0.970339 0.180659 0.160636
0.724038 0.116852 -0.67979
0.232975 0.432729 0.870901
-0.311087 0.903605 0.294487
0.893974 0.296658 0.335865
0.662946 0.0422742 0.747473
0.103731 -0.525538 0.844422
-0.533416 -0.830783 0.158955
0.928316 0.318946 -0.191055
0.689572 -0.0271486 0.723708
0.28592 -0.889797 -0.355683
0.0257395 -0.639953 -0.767983
-0.190541 -0.165472 -0.967633
-0.14397 0.533938 -0.833176
-0.078619 0.929099 -0.361378
-0.911677 0.378085 0.160924
0.39434 -0.893976 0.212846
0.302125 0.162839 -0.939257
0.196891 -0.938551 0.283471
0.713925 -0.644188 0.274468
0.698549 -0.698644 -0.154682
-0.920878 -0.374652 -0.10779
0.414063 -0.228591 0.881078
-0.690555 -0.432206 -0.579941
-0.610963 0.0751742 0.788082
0.10615 -0.818106 -0.565185
-0.796849 0.596579 -0.0955234
-0.441286 -0.779899 0.443874
0.907475 0.127737 0.400215
0.471666 0.178749 -0.86347
0.741505 -0.670862 0.0107007
-0.397305 -0.708247 -0.583554
0.510515 -0.171757 -0.84254
-0.0848834 0.92461 0.371336
-0.896597 -0.344425 0.278363
-0.552237 0.0415501 0.832651
0.859988 0.207644 -0.46616
-0.953283 0.169548 -0.250011
0.994238 0.106608 0.0112292
-0.176388 -0.316798 0.931947
-0.99906 -0.0344611 0.0263048
-0.509381 -0.159852 0.845564
-0.653716 0.644392 0.396755
-0.204465 -0.978273 -0.0342927
-0.989261 0.0313544 -0.142759
0.742581 -0.596342 0.304877
-0.361603 -0.692878 0.623829
0.0166855 -0.226073 -0.973967
0.0486801 0.994942 0.087868
0.98526 0.0981217 0.140121
0.206265 0.429612 0.879141
0.763042 -0.645567 0.0317704
-0.206471 0.0803832 0.975145
-0.506353 -0.110526 0.855214
-0.273433 0.628853 -0.727859
0.0866834 0.933858 -0.346979
-0.17302 0.966063 -0.191799
-0.712708 -0.698503 -0.0643552
0.0225649 -0.542692 0.839628
0.656814 -0.267742 -0.704918
0.704837 0.280623 0.651502
-0.80112 0.16167 -0.576255
-0.726006 0.519469 0.45063
-0.485688 -0.336474 0.806779
-0.650534 0.133577 -0.747638
0.0999597 -0.163148 0.981525
0.61921 0.613572 -0.490008
0.684181 0.370726 -0.62806
0.453475 -0.248323 0.855977
-0.447971 -0.33846 0.827507
0.901931 -0.252424 0.350432
0.412851 -0.612103 -0.674451
0.696154 0.691712 -0.192101
-0.359968 -0.40219 0.841823
0.103872 0.794535 0.598268
0.882887 0.435817 0.174855
-0.342875 -0.378999 0.859533
0.178386 0.0322542 -0.983432
-0.00313243 0.999989 -0.00346915
0.763249 -0.489605 0.421591
-0.208468 -0.975434 -0.0712005
-0.745811 -0.66511 0.0373454
-0.578692 -0.328664 -0.746389
-0.972409 -0.0102582 -0.233057
0.162858 -0.840464 0.516815
-0.252671 -0.160395 0.954165
0.641428 -0.728428 0.240753
0.270858 0.88954 -0.367906
0.817338 0.0596241 -0.573065
0.425548 -0.489507 -0.761113
-0.277477 0.485217 -0.829199
0.271355 0.0875455 -0.95849
0.39352 0.495537 -0.774329
-0.488457 -0.789985 0.370585
0.671388 -0.620251 -0.405619
-0.820038 0.0905723 -0.565096
0.390475 0.374681 0.840918
-0.252752 -0.799297 0.545197
0.496027 0.5189 0.696204
-0.0642981 0.00300627 -0.997926
0.9123 0.160389 0.376807
0.540578 -0.767798 -0.343892
0.41908 -0.152834 -0.894994
0.110138 0.925615 -0.362086
0.688241 0.221519 -0.690836
0.97833 -0.205212 0.0275545
0.229214 -0.222099 0.947699
0.979692 0.199491 -0.0201559
-0.51228 -0.150051 -0.845609
-0.717079 0.0762688 0.692806
0.850251 0.501506 -0.159891
0.568359 0.402875 0.717398
-0.850401 0.237997 0.469228
-0.679422 0.714379 -0.167475
0.926041 0.266325 -0.26743
-0.047513 0.993409 0.104309
0.86151 -0.507521 -0.0149025
-0.723506 -0.484624 0.491608
0.0943768 0.392479 -0.914906
-0.371952 -0.810798 0.451951
-0.599371 -0.787993 -0.140791
-0.472316 0.687607 -0.551466
-0.489593 -0.859897 -0.144482
-0.660854 -0.639838 -0.392275
-0.377103 0.519554 0.766718
-0.946961 -0.256695 0.193321
-0.610858 0.584808 -0.533715
0.00649124 0.964398 0.264375
-0.16494 -0.963474 -0.210979
-0.10004 -0.154857 -0.982859
-0.706981 0.413473 -0.573775
-0.359537 -0.856493 -0.370342
0.673224 0.306928 0.67273
0.23411 -0.629354 -0.741017
0.566473 -0.342034 -0.749747
0.340951 -0.693569 -0.634598
0.403912 -0.793628 0.454984
-0.166174 0.409252 0.897162
-0.488016 0.225107 -0.843307
0.552512 -0.722131 0.416243
0.202466 0.291218 -0.934986
-0.869581 0.235439 0.434047
0.99404 0.0679536 0.0852465
-0.935255 0.209185 -0.285553
-0.931807 -0.00549419 -0.362914
0.364924 0.551539 0.75009
-0.247011 -0.718305 -0.650403
0.227505 -0.826323 -0.515201
-0.116182 0.00621962 0.993208
0.625154 0.558261 0.54546
-0.520943 0.0955707 0.848224
-0.914454 0.0332118 0.403325
-0.941535 -0.0707637 -0.329399
-0.75243 0.0720539 -0.654719
-0.605091 -0.478486 -0.636331
0.684572 -0.718407 0.1235
-0.69754 0.207833 -0.685743
0.0446449 -0.998799 0.0201809
-0.0968111 0.957796 -0.270656
0.888294 -0.0902152 0.450328
-0.33762 0.915859 -0.21729
0.65413 0.386427 -0.650222
-0.134181 -0.337219 -0.931815
0.635168 -0.331849 0.697451
-0.678678 -0.361253 -0.639447
0.126561 0.600346 0.789662
0.279352 0.924809 -0.258244
0.210774 0.879082 0.427538
0.0337336 0.123108 0.99182
0.743973 -0.560456 -0.363857
0.81349 0.195422 -0.547763
-0.754115 -0.50966 0.414194
0.359955 -0.366712 -0.857878
-0.406352 0.902211 -0.144546
0.908353 0.377941 -0.179037
0.918901 -0.106948 -0.379715
0.239119 0.93387 -0.265911
-0.774216 0.587692 0.234962
0.770918 0.0910154 -0.630399
-0.266433 -0.18739 -0.945462
-0.24439 0.389653 0.887944
0.342164 -0.924136 0.169991
0.690692 0.569298 0.44592
0.762679 0.644825 -0.0502165
-0.857959 0.388688 0.335898
0.8341 0.551448 -0.013513
-0.656466 0.491377 0.572364
0.897828 -0.439199 -0.0317591
0.889832 -0.444333 0.103768
-0.491866 0.367193 0.789454
0.370042 0.0616789 0.926965
0.0551715 0.920809 -0.386091
0.911365 0.402747 -0.0849056
-0.754532 -0.636366 0.160373
-0.29693 -0.247969 -0.922141
0.970824 -0.239594 0.00973969
0.618216 -0.568785 0.542488
-0.979589 -0.19246 0.0580071
0.344455 -0.828124 -0.442223
0.298686 -0.856448 -0.421051
0.898386 -0.152908 0.411731
0.923241 0.236272 0.302987
-0.178161 0.821807 0.541195
0.143116 0.474425 0.868584
-0.443497 0.854726 0.26973
0.793663 -0.598084 -0.11133
0.118738 -0.874125 0.470964
0.671579 -0.640347 -0.372744
-0.426268 -0.311119 -0.849412
-0.208611 -0.443732 0.871541
-0.829412 0.406046 -0.383669
0.771495 0.461462 -0.438004
0.354524 0.869192 -0.344701
0.200894 -0.264139 -0.94333
-0.0298275 -0.980879 0.192319
0.272652 0.663833 -0.69641
0.392638 -0.906496 0.155246
0.86864 -0.0147898 -0.495223
0.438229 -0.512066 -0.738745
-0.11964 0.897684 0.424087
-0.151714 -0.868095 -0.472645
-0.334041 -0.85933 0.387257
0.0672196 0.306609 0.949459
-0.0851033 0.358304 -0.929718
0.381098 0.394033 0.836362
-0.140958 -0.355962 -0.923808
0.243395 0.425007 0.871853
-0.38381 -0.787441 0.482315
-0.225277 0.494101 -0.839711
-0.465245 -0.818664 -0.336655
0.343724 -0.843645 -0.412452
-0.289655 0.820566 0.492718
-0.262434 -0.920175 -0.290528
0.195105 0.0834575 -0.977225
0.421968 -0.277096 0.863227
-0.55122 0.699724 -0.454469
-0.440606 -0.0721419 0.894797
-0.755565 -0.258689 -0.601832
-0.274762 -0.0408449 0.960644
-0.215013 -0.233947 -0.948176
0.807723 -0.245313 -0.536103
-0.629774 0.73661 0.246557
0.700573 -0.460582 -0.545034
-0.34275 -0.727378 -0.594511
0.462089 0.294847 -0.836385
0.0670716 -0.022372 0.997497
-0.240434 0.0963843 0.965868
-0.973985 0.154337 0.165933
0.904094 0.421148 -0.0724526
0.864745 -0.00109995 -0.502211
0.72013 0.637748 0.273297
0.742608 0.432561 -0.511296
-0.726861 -0.252597 0.638645
0.671709 0.171891 -0.720597
0.995166 0.0231945 0.0954272
-0.776962 0.583315 -0.2368
-0.50749 0.352783 -0.786129
-0.352105 -0.649562 0.673863
-0.769921 -0.466256 -0.435691
-0.632983 -0.345926 0.692581
0.0329194 0.987976 0.151064
-0.187302 -0.891207 0.413119
0.394507 -0.917479 0.0509614
0.0187345 -0.819539 0.572718
-0.710887 0.246547 0.658676
0.654329 0.66942 0.351754
0.883391 0.458198 -0.0983586
0.873689 -0.340292 -0.347663
0.235033 0.705534 0.668566
-0.579121 0.275613 -0.76724
-0.799172 0.371908 -0.472238
0.0557954 0.682835 0.728439
0.983901 0.156837 0.0856855
0.191779 -0.913695 -0.358305
0.950318 0.209426 0.230298
-0.118328 0.897236 -0.425402
0.583686 -0.0957389 -0.806316
0.847111 -0.493495 -0.197144
0.810984 0.580782 0.0706936
0.810299 -0.207624 0.548004
0.95317 -0.0892214 -0.288974
0.818618 0.520959 0.241799
-0.111932 0.821583 -0.558992
-0.698337 0.711731 -0.0759218
-0.701878 -0.0130127 -0.712178
-0.489687 -0.327834 0.807918
0.512028 -0.844792 -0.155412
-0.0876509 0.196752 -0.976527
0.187678 0.967127 0.171587
0.989415 -0.144741 -0.010353
0.601378 -0.242495 -0.761276
-0.507049 0.839068 0.197147
-0.399396 -0.619199 0.676073
-0.127288 -0.0359551 0.991214
-0.942998 -0.0426023 -0.33006
-0.638795 0.6703 -0.377677
0.0343414 0.305858 0.951458
0.0824088 0.714862 0.694392
0.547003 0.524367 -0.652554
0.269501 -0.895536 -0.354098
0.704729 -0.314287 0.636066
-0.077728 0.580299 -0.810686
0.338707 0.931181 0.134834
0.441161 0.799973 0.406718
-0.342642 -0.77719 0.5278
-0.857352 0.473454 0.201964
0.312751 -0.932414 -0.181081
0.71987 -0.243385 -0.650039
0.876191 -0.44401 0.187468
-0.549081 0.822906 0.146067
-0.932702 0.282584 -0.224085
0.824721 0.547466 0.141832
0.83197 0.320616 -0.452804
-0.441717 -0.148395 -0.884797
0.141094 -0.956861 0.253986
0.528748 0.81758 0.22801
0.0853624 0.908042 -0.410089
0.174224 0.416786 -0.892152
0.93685 -0.0798572 -0.340492
-0.730413 0.591758 -0.341056
-0.712408 -0.674791 0.192699
0.104396 -0.818459 -0.565001
0.131825 -0.696713 -0.705133
-0.238827 -0.214761 0.947016
-0.776963 0.0509213 0.627484
0.683327 0.160441 0.712266
-0.804567 0.218672 -0.552136
-0.460236 -0.361242 -0.810979
-0.792623 0.607374 -0.0533424
-0.601903 0.189334 0.7758
0.883992 0.190046 0.42713
0.840156 -0.540768 -0.0413197
0.550395 -0.249578 0.796729
-0.930892 0.206436 -0.30137
-0.894882 0.220353 -0.388111
-0.267068 -0.947097 -0.177995
-0.740683 -0.636877 -0.213956
-0.343309 0.0182083 0.939046
-0.899841 -0.418576 0.122802
0.243717 0.565858 0.787659
-0.503159 -0.836283 0.217857
0.0595903 0.719133 0.692312
-0.593197 -0.319704 0.738854
0.539022 0.448209 0.713137
-0.579443 0.585755 0.566689
0.810061 -0.229476 -0.539576
0.444331 -0.448903 -0.775278
0.084821 0.96523 0.247257
-0.483336 0.511179 -0.710691
0.869321 0.197111 0.453241
-0.759602 0.339835 -0.554541
0.606754 0.175867 0.775191
0.812996 0.494016 -0.308196
0.265077 0.435167 -0.860444
-0.246102 0.897043 0.36708
-0.302904 0.760986 0.573715
-0.317107 0.941854 -0.111147
0.727056 -0.674453 -0.128459
0.244519 0.93242 0.26609
0.234171 0.918137 0.31967
0.638856 -0.670502 0.377214
-0.147194 -0.625722 0.766032
0.486403 0.423769 0.764089
-0.277933 -0.955859 -0.0953246
0.564355 -0.415469 -0.713365
-0.857976 -0.252907 0.447118
-0.838037 -0.483837 0.252181
-0.877701 -0.402134 0.260633
0.992164 -0.0185138 0.123561
0.770862 -0.0319329 0.636202
-0.996422 0.0610038 0.0584966
0.94776 0.318895 -0.00754286
0.194524 -0.727453 -0.658007
0.939488 0.323348 -0.113173
0.911115 0.405377 0.0744197
-0.287225 0.956284 0.0549843
-0.446264 -0.0699961 -0.89216
0.576614 0.252465 -0.777031
0.14444 -0.986009 0.083204
0.45116 0.0442338 -0.891346
0.4427 -0.292395 -0.847657
-0.166988 0.547754 -0.819805
-0.918779 -0.212587 -0.332644
-0.657598 0.549402 -0.515482
0.335188 0.15651 0.929061
-0.592664 0.340498 -0.729938
0.899314 0.268157 -0.345436
-0.0781494 -0.0173977 -0.99679
0.991638 0.0660651 -0.110855
0.984865 0.0699809 0.158568
0.365447 -0.376565 -0.851262
0.104355 0.958529 -0.265203
-0.944215 -0.265075 -0.195432
-0.0910791 -0.989154 -0.11523
0.827376 -0.109981 0.550775
0.65954 0.697032 0.28134
0.107877 -0.720375 0.685144
-0.112222 -0.729372 -0.67485
0.746937 -0.583606 -0.318575
-0.109091 -0.627937 0.77058
-0.498788 -0.85539 0.13971
-0.335187 0.855583 -0.394496
0.278319 -0.944607 -0.173945
0.793549 -0.00395495 0.608494
-0.911569 -0.149589 0.38297
0.256861 0.746668 -0.613604
-0.106446 0.98457 -0.138893
-0.681902 -0.596425 -0.423422
-0.949191 0.261523 -0.175047
-0.122567 0.968026 0.218868
0.172197 0.396064 -0.901932
0.971453 -0.0699956 0.226672
-0.506034 0.0444982 0.861365
-0.70763 0.116847 0.696855
0.0605016 0.649863 0.75764
-0.515419 0.69722 -0.498224
-0.937711 0.0909399 0.335302
-0.998816 0.00028669 -0.0486505
-0.619992 -0.743087 -0.251856
0.0997188 0.97376 -0.204567
-0.46948 -0.73259 -0.49285
0.579462 -0.778267 -0.241916
-0.246696 -0.682174 0.688317
0.8323 -0.554034 -0.0180055
-0.68494 -0.632187 0.36221
0.9745 -0.0764408 -0.210965
0.667618 -0.0347385 -0.743693
0.576003 0.702367 -0.418212
-0.569614 0.760391 -0.312001
0.119483 -0.263189 -0.957317
0.673084 -0.640234 0.370214
-0.0851609 0.810368 -0.579699
0.331013 -0.891887 0.308169
0.999336 -0.0363897 -0.00193786
-0.537344 -0.210906 -0.816566
-0.121628 -0.43713 -0.891136
0.650976 -0.0258293 -0.758659
-0.826409 0.212713 -0.521346
-0.174642 -0.121111 0.977155
0.594018 0.77455 0.21729
0.183374 0.611885 0.769396
0.902377 -0.311916 -0.297362
-0.304438 -0.859 -0.411626
0.906944 -0.160525 0.389466
-0.651928 0.747849 0.125349
0.163214 0.911425 0.377712
0.0995267 -0.478578 -0.872386
0.805634 -0.507078 -0.306311
-0.923602 0.26462 0.277373
0.684327 -0.714532 -0.145398
0.110103 0.420408 -0.90063
-0.423693 0.808631 -0.408166
-0.167146 0.817868 -0.550594
-0.88358 0.43631 0.17006
-0.560341 0.785396 0.263004
-0.943858 0.0439924 0.327409
-0.412587 0.350042 0.840977
-0.0171885 0.508131 0.861108
0.8903 0.217556 0.400043
-0.761362 0.179929 -0.622859
-0.070508 -0.482344 0.87314
-0.533522 -0.842983 -0.0688004
0.353907 -0.721056 0.595675
0.27839 0.947292 -0.158546
-0.121286 0.607066 -0.785341
-0.452494 -0.831484 0.322308
0.564594 0.555655 -0.610312
0.451748 0.73867 -0.50029
0.775338 0.00969413 0.631472
0.113891 0.540368 -0.833685
-0.577028 -0.100055 -0.810572
-0.151779 -0.796208 0.585675
-0.538881 0.833096 -0.124729
0.434335 0.327111 -0.839257
0.381097 0.922816 0.0563491
0.87525 0.395228 0.278805
-0.768434 -0.361758 0.527865
-0.32678 0.362523 0.872807
0.365507 -0.774473 0.51633
-0.894398 -0.278441 0.350032
0.0494101 0.625864 0.778366
-0.748885 -0.457978 0.478986
0.606443 -0.7085 -0.360908
-0.476162 -0.631949 -0.611482
0.333142 -0.0253806 -0.942535
-0.524223 -0.313349 0.791835
0.0266974 -0.96697 0.253487
-0.478213 0.735454 0.48002
0.541286 -0.720592 -0.433309
-0.0670544 -0.985683 -0.154704
0.549323 -0.794355 0.259313
-0.788947 -0.416717 0.451564
-0.791246 -0.60655 0.0776301
0.0512161 -0.918163 -0.392878
-0.32454 0.0523471 0.944422
0.279181 0.0276596 0.95984
0.261227 -0.184154 -0.947548
-0.0166581 0.967062 -0.253994
0.436565 -0.804329 -0.403071
-0.166112 0.694412 -0.700142
0.642101 0.708475 -0.292865
0.98113 -0.0646793 0.182208
-0.445699 0.267632 0.85424
-0.434855 -0.475457 0.76475
0.74865 0.660392 0.0583544
0.798535 0.0106376 -0.601854
0.481503 -0.873503 -0.0717403
-0.301812 0.297049 -0.905909
0.604536 -0.354626 -0.713285
0.712967 0.700728 0.0256587
0.647724 -0.250412 -0.719547
0.821345 0.215452 0.528178
-0.993499 -0.0999882 -0.0544162
-0.0164008 0.0860743 0.996154
0.0230114 -0.901146 -0.432904
0.958375 0.129965 0.254217
-0.470146 0.264361 -0.842067
-0.277042 -0.611367 -0.741268
-0.143228 -0.268391 0.952603
-0.780524 0.572438 -0.251191
-0.415962 -0.878529 0.234865
0.776641 0.464419 0.42561
0.525339 -0.605292 -0.59803
-0.042069 0.303174 0.952006
0.625483 -0.16746 0.762055
-0.987472 0.0639892 -0.144236
0.0286261 -0.448736 -0.893206
-0.254404 -0.784554 0.565468
-0.105268 -0.267914 0.957675
0.424923 0.8286 -0.364502
0.980554 -0.152206 -0.123881
-0.812688 -0.551647 0.187681
0.533352 0.605887 0.590285
-0.172979 -0.161781 0.971548
0.952694 -0.29722 -0.0635124
-0.117231 0.966646 0.227713
-0.0265026 -0.920996 -0.388669
-0.636035 -0.0876963 -0.766661
0.343912 -0.628305 -0.697823
0.673838 0.545565 0.498298
0.42694 0.16119 -0.889798
0.923985 -0.143968 0.354294
-0.130609 -0.534838 -0.834799
-0.521517 -0.852778 0.0281001
0.839036 -0.394132 -0.375072
0.67127 0.331386 -0.663008
0.392623 -0.669097 0.630996
-0.658082 0.711023 0.247736
-0.275928 0.961178 -6.20084e-005
-0.794504 0.403825 0.453529
0.842147 0.495718 -0.212256
-0.131226 -0.404572 -0.905042
-0.735452 -0.104692 -0.66944
-0.0647388 0.837695 0.542287
0.698543 -0.366841 0.614381
0.891262 -0.319108 -0.322214
-0.645511 -0.763614 0.0144779
-0.0571211 -0.836201 -0.545441
0.458996 0.184991 0.868966
0.27481 0.558913 0.782366
-0.544616 -0.491925 -0.679267
-0.436891 -0.824936 0.358619
0.459221 0.0870831 0.884043
-0.0234028 0.817047 0.576095
0.394476 0.633385 -0.665742
-0.46777 0.770393 0.433227
-0.525361 0.735008 0.428671
0.0581234 -0.998225 -0.01299
0.6079 -0.0630763 -0.791504
0.454674 -0.882982 0.116681
-0.576862 -0.207617 0.790016
-0.397229 -0.46314 0.792282
0.862738 0.490387 -0.1233
0.530689 0.127155 0.837974
0.526907 0.515199 -0.675973
0.409189 -0.591729 0.694566
-0.338665 0.520922 0.783547
-0.6057 0.782642 0.143523
-0.0778472 -0.920891 -0.381969
-0.567066 0.693966 -0.443674
-0.490437 -0.428392 -0.758915
-0.653877 0.241097 -0.717159
0.496607 -0.816172 0.295374
-0.646031 -0.013394 0.763194
0.239161 0.391341 0.888625
0.244502 0.913557 -0.32501
-0.112129 -0.927917 0.355523
0.418272 -0.657641 0.626543
-0.349285 -0.343805 0.871664
-0.937779 0.0204164 0.346631
-0.743938 -0.0442675 -0.66678
0.803631 0.566384 -0.182721
-0.5066 0.856524 -0.0986034
-0.386718 -0.64631 -0.657824
0.864848 -0.206968 0.457387
-0.70389 -0.247731 -0.665709
-0.0960634 0.355295 0.929805
-0.546193 -0.779572 -0.306496
0.747303 -0.320988 -0.581812
-0.158542 0.971884 -0.174084
-0.931689 0.351009 -0.0935325
-0.43749 0.583723 -0.68401
0.828848 0.182262 -0.528953
0.0344201 0.846006 0.532061
0.432569 -0.181715 -0.883099
-0.287793 -0.957676 0.00561144
0.445687 -0.741765 -0.501147
0.7213 0.692533 -0.0111779
0.0136165 -0.655357 -0.755196
0.402338 -0.530984 -0.745775
-0.946387 0.124623 0.298029
-0.0480946 -0.967758 -0.247249
-0.124018 0.917362 -0.378242
0.515603 0.291823 0.805601
0.266601 -0.0476209 -0.96263
0.724906 -0.411153 0.552688
-0.76528 0.391864 -0.510675
-0.676369 -0.348437 -0.648935
-0.886464 0.0743395 -0.456788
0.939227 -0.329692 -0.0956805
-0.101215 -0.391215 -0.914717
-0.782857 0.621488 -0.029803
0.316718 -0.437243 -0.841729
0.580803 -0.716846 0.385746
0.279942 -0.00120504 -0.960016
-0.397971 -0.908805 0.125267
0.614313 -0.566617 0.549149
-0.482306 -0.449052 0.752152
0.46701 0.881636 0.0679656
-0.396769 -0.740315 -0.542685
-0.399418 0.487899 0.776157
-0.316525 -0.811364 -0.491428
0.774672 -0.291264 -0.561291
-0.0996087 -0.895362 0.434057
0.60013 -0.305223 0.73938
-0.622622 -0.743786 0.243154
0.105153 -0.355432 0.928768
0.827066 -0.106259 0.55197
0.597288 0.382376 0.705007
0.140088 0.665475 -0.733157
0.216061 -0.757116 0.616516
-0.349507 0.884764 0.308281
0.787215 0.0685212 -0.61286
0.892584 0.290856 -0.344525
-0.49546 0.671346 -0.551193
-0.883677 -0.322955 0.338843
0.62035 -0.0351963 -0.783535
-0.689762 0.70547 0.162911
0.894598 0.446221 -0.0241252
0.373406 0.285141 0.882758
-0.635148 -0.157818 0.756095
0.993876 0.0565903 0.094909
0.419664 0.357125 -0.834472
-0.233461 0.949008 -0.211847
-0.0185568 0.900689 -0.434067
0.717324 0.381043 -0.583312
-0.598747 0.42953 -0.676023
0.584745 0.492005 0.644984
0.61979 0.0689633 -0.781732
0.485614 0.666533 0.565608
0.595331 0.416481 -0.687113
0.978616 0.15793 0.131793
0.434744 0.436515 0.787688
-0.0585229 -0.614554 0.786701
0.0358195 -0.346097 0.937515
-0.600675 0.0131489 -0.799385
0.767006 0.14281 -0.625546
-0.773519 0.505165 0.382722
-0.46113 -0.726492 -0.509479
0.781252 0.209845 0.587887
0.965299 0.18991 0.179254
0.124433 0.322089 -0.938496
0.938799 0.224052 -0.261643
0.706252 -0.392669 -0.589083
0.218019 -0.259612 0.940781
-0.637146 0.524828 -0.564447
-0.63429 -0.43691 0.637797
-0.713229 0.611978 0.34174
0.925076 0.176579 -0.336236
-0.286209 -0.942222 -0.174076
0.952791 0.292478 0.0815185
0.623631 -0.452385 0.63752
0.930493 -0.36113 0.061386
0.28335 0.841261 0.460427
-0.421382 0.106798 -0.900573
0.449981 0.744538 0.493134
-0.855891 0.35496 -0.376105
0.243896 -0.241049 -0.939367
0.151633 0.860946 0.485571
0.997793 0.0467503 0.047157
0.162674 0.0486822 0.985478
0.602315 -0.638543 -0.47904
0.211428 0.565485 0.797198
-0.719897 0.254062 -0.645911
0.167569 0.532593 0.829617
-0.698987 -0.645901 -0.306967
-0.132563 -0.960911 -0.243058
0.305833 -0.548634 0.778117
0.38214 -0.834402 -0.397168
0.262255 0.963544 -0.0529636
-0.617624 0.781621 0.087225
-0.265928 0.839673 0.473532
0.948362 -0.299161 0.105415
0.671689 0.724224 0.155993
-0.83754 -0.223223 -0.498697
0.219548 0.975349 0.0222061
0.909512 -0.252424 -0.330258
0.429351 -0.876352 -0.218323
0.272273 0.2127 0.938417
-0.729245 0.262037 0.63209
0.548985 0.441871 -0.709483
0.660596 -0.332052 -0.673316
-0.0979951 -0.355668 -0.929461
-0.685634 -0.0852976 -0.722932
0.187274 0.912006 -0.364931
0.480728 -0.0565915 -0.875042
-0.938346 0.187123 0.290676
0.953037 -0.0936945 0.287995
0.363181 -0.198728 -0.910279
0.415128 0.304751 0.857202
-0.154441 0.357209 -0.921168
-0.389612 -0.804077 0.44907
-0.275668 -0.748685 -0.602892
0.123081 -0.21973 -0.967765
0.708043 0.689525 0.152414
-0.85806 0.450824 0.24595
-0.206128 -0.474494 0.855784
0.905887 0.277326 0.320091
0.302266 -0.722502 -0.621792
-0.0582685 0.95558 -0.288915
-0.29464 0.308409 -0.904473
-0.540053 0.800312 -0.260468
0.0280603 0.981179 -0.191049
0.876255 0.428207 -0.220942
-0.663972 0.672015 0.327929
0.709566 0.695815 -0.111163
0.970485 -0.0709311 -0.230493
0.193667 -0.91254 0.360227
0.641504 -0.414413 -0.64555
-0.673419 -0.583853 0.453457
0.725535 -0.656379 -0.206799
-0.607381 0.530814 -0.591037
0.558352 -0.132697 -0.818923
0.0227715 -0.714622 0.69914
0.825074 0.497169 -0.26847
0.0704629 -0.383688 -0.92077
0.241102 0.966484 -0.0881952
0.297775 0.283964 -0.911424
-0.981411 0.190615 -0.022329
-0.00999446 0.015733 0.999826
0.410453 0.494168 0.766372
0.512132 0.267637 -0.816144
-0.0401178 0.554264 -0.831374
0.277628 -0.133393 0.951383
0.744411 0.390568 -0.54158
-0.176756 0.315664 -0.932263
0.0537259 -0.897725 -0.437268
-0.358193 -0.907752 0.218368
0.772237 -0.25797 0.580605
-0.88867 0.351309 0.294699
-0.763373 0.471696 -0.441322
-0.147632 0.919024 0.365513
-0.621741 -0.614561 0.485545
-0.63666 0.392396 0.663845
-0.776404 0.603117 -0.182881
-0.922428 -0.357169 -0.14682
0.445101 -0.601018 -0.663824
0.751945 -0.16461 -0.638344
-0.245705 -0.463127 -0.851553
0.209551 -0.212306 -0.954471
-0.0481348 -0.0373174 -0.998144
0.116429 -0.36455 -0.923876
-0.998832 0.000585428 -0.0483061
-0.290786 0.156461 -0.943909
-0.756972 0.19613 -0.623319
-0.279943 0.957216 0.0732835
0.969547 -0.200074 0.141242
0.429049 -0.740529 0.517236
-0.937737 -0.0577055 -0.342519
0.513149 -0.809938 -0.28404
0.113955 -0.584658 -0.803237
-0.0731179 0.743351 -0.664893
0.538889 0.321559 -0.778587
-0.898789 -0.128061 0.419259
0.653008 -0.746786 -0.12606
0.722483 -0.398663 0.564877
0.902774 0.412547 0.121673
-0.312152 0.948347 -0.0565632
-0.184803 0.519809 0.834054
-0.567599 -0.805067 -0.172335
-0.957066 -0.27906 -0.0784292
-0.991726 0.110171 0.0658887
0.325072 -0.883717 0.336708
0.177106 -0.959882 -0.217392
0.385113 0.754438 -0.531519
-0.781483 -0.620579 -0.0645395
0.989269 0.0158154 0.145247
-0.497121 -0.863897 -0.080946
0.452586 0.58751 -0.670819
-0.829105 -0.333426 0.44879
-0.172019 0.415504 0.893177
0.238774 0.967864 -0.0789012
0.920938 0.37567 -0.103656
-0.376031 0.871811 -0.313922
-0.775917 0.544724 0.318165
0.651165 0.708105 -0.273079
0.491787 0.566264 0.661431
0.710041 0.404055 0.576699
0.405096 -0.143277 0.902978
-0.357893 0.824916 -0.437523
-0.44051 -0.883188 0.16103
0.66176 0.0294892 -0.749135
0.185159 0.577272 0.795282
0.409584 0.7081 0.575183
-0.52537 -0.417312 -0.74151
-0.398089 -0.0800724 -0.913846
-0.0434281 0.828084 -0.558919
0.0545351 -0.871709 0.48698
0.718231 -0.319155 0.618291
0.718844 -0.344497 0.603808
-0.686119 -0.28147 -0.670832
-0.728005 0.511006 -0.457036
-0.589309 -0.476511 0.65242
-0.531706 0.821276 -0.206866
-0.311992 -0.522558 -0.79347
-0.099683 -0.292804 0.950962
0.905286 -0.404464 -0.129867
-0.847027 0.500222 0.179786
-0.766077 -0.220317 -0.60381
0.382504 -0.47925 0.789943
-0.478717 -0.0685685 -0.875288
0.839222 -0.201703 0.504997
0.0443795 -0.88325 0.466797
0.397224 0.165762 -0.902627
-0.531673 0.338794 -0.776236
-0.362431 -0.86219 -0.353938
0.0580404 0.0333944 0.997756
0.0661326 -0.26388 -0.962286
-0.363092 0.764579 -0.532525
-0.0864796 0.412531 -0.906829
-0.519163 0.315042 0.794492
0.382707 -0.328608 0.863453
-0.848312 -0.179305 -0.498214
0.387488 0.0952216 0.916944
-0.906062 0.421221 -0.0402963
-0.0765654 0.969404 0.233225
0.403343 -0.908655 -0.107984
0.487838 0.630661 0.603556
-0.113458 -0.896629 -0.428
0.757834 -0.525726 -0.386393
-0.0690693 0.788147 -0.6116
-0.299906 -0.408046 -0.862296
-0.109038 0.985576 0.129424
-0.958702 -0.026277 0.283196
0.606133 0.0916718 0.790063
0.498154 0.694076 0.519713
-0.640941 -0.189247 0.743896
0.297277 -0.887726 -0.351525
-0.771469 -0.566897 -0.288901
0.995527 0.00544816 -0.0943214
0.0711072 0.233436 0.969769
0.151144 0.988207 -0.0245477
-0.499066 -0.0784973 -0.863001
-0.692014 0.592366 0.412577
-0.98554 -0.00890503 -0.169208
-0.201693 -0.657126 0.726296
0.186329 0.887967 -0.420472
0.464875 -0.807879 0.362248
-0.101976 0.952502 -0.286951
-0.870207 0.41993 0.25768
0.0821372 0.948079 -0.307247
-0.664693 0.424529 -0.614783
0.260084 -0.829659 -0.493986
-0.840109 0.524469 0.138381
-0.267802 0.16816 0.948685
-0.708782 0.668849 -0.224208
0.744652 -0.56885 -0.349147
0.425359 0.745952 0.51247
0.0893042 -0.168698 -0.981614
0.479766 -0.855772 -0.193593
0.868474 0.365235 0.335196
0.685116 -0.682796 0.253782
0.0602671 0.4266 -0.90243
0.900229 -0.343804 -0.267184
0.706773 -0.0480753 -0.705805
0.979964 -0.00862553 0.198987
0.610979 0.743793 0.271067
0.247196 0.42811 -0.869262
-0.596146 -0.267304 -0.757072
-0.0142753 -0.0674974 0.997617
0.585866 -0.797925 -0.14169
0.411852 -0.850652 -0.326754
0.552471 0.784959 0.280385
0.284134 -0.871885 -0.398854
-0.389946 0.874654 0.287962
-0.959538 -0.226535 -0.167239
-0.363238 0.266964 0.89263
0.241393 0.956364 -0.164613
-0.99033 -0.068194 -0.120814
-0.402009 -0.874684 -0.270771
-0.922846 -0.341179 -0.178749
-0.352437 -0.935675 0.0173306
-0.655105 0.443338 -0.611791
0.273461 -0.886755 -0.372672
0.836927 0.312652 0.449224
0.695152 -0.711955 -0.099413
0.100964 -0.866213 -0.489367
-0.101557 0.9674 -0.231999
-0.394581 -0.914769 -0.0866257
0.876399 0.403428 -0.263004
0.900746 -0.131013 0.414115
0.983094 -0.171783 0.0633824
0.454879 -0.588883 0.668058
-0.9932 -0.0396108 -0.109475
0.812707 0.338261 0.474434
0.832367 0.520038 -0.191641
-0.0426051 0.99122 0.125174
-0.448887 0.564363 -0.692817
-0.962642 0.165518 0.214301
-0.694476 -0.0777953 -0.715298
0.290951 -0.922771 0.252669
-0.459795 -0.875035 0.151339
0.543094 -0.739014 0.398632
-0.404446 -0.840497 -0.360539
0.456207 -0.753076 0.474081
0.143296 -0.0301808 -0.98922
-0.882647 -0.283609 0.374833
-0.829312 0.548312 -0.107684
0.599083 -0.220422 0.769749
0.126335 0.214494 0.96852
0.0792299 -0.993081 -0.0866812
0.177828 0.282383 -0.942675
-0.549198 -0.694428 -0.464921
-0.359706 0.606137 0.709373
-0.517482 -0.739679 0.430218
-0.859238 -0.278642 0.429031
-0.264487 -0.434745 0.860839
0.83122 0.0335966 0.554928
0.25233 -0.952978 -0.167814
-0.0244219 -0.180194 0.983328
-0.264644 -0.332031 -0.905383
-0.587649 0.55194 0.591633
-0.2366 -0.878143 -0.415796
0.0702677 0.907588 -0.41394
-0.503878 -0.594463 -0.626674
-0.89224 -0.447642 0.0593631
-0.307623 -0.273037 -0.911493
-0.723766 -0.674271 0.146703
0.507462 0.250486 -0.824463
-0.604792 -0.303489 -0.736289
0.855481 -0.189682 0.481842
